49.498959	-21.989313	-799.118958	
50.115772	-21.907169	-799.312927	
50.663857	-21.856030	-799.524353	
51.170219	-21.763397	-799.123474	
51.776073	-21.696913	-799.785706	
52.089821	-21.644356	-799.273743	
52.702698	-21.556334	-799.577698	
53.128681	-21.490597	-799.652527	
53.630493	-21.402077	-799.443909	
54.168941	-21.335138	-799.768127	
54.559490	-21.242002	-799.151978	
55.080566	-21.167831	-799.863647	
55.634640	-21.079174	-800.042236	
56.147938	-20.999409	-799.619019	
56.681530	-20.931126	-799.837036	
57.032051	-20.898182	-799.803040	
57.619156	-20.831923	-800.353882	
58.635544	-20.636921	-799.977356	
59.007187	-20.578743	-800.099670	
59.518196	-20.531519	-800.147339	
59.902695	-20.443050	-800.265564	
60.457695	-20.363497	-800.083252	
60.986465	-20.323055	-800.264160	
61.455063	-20.228539	-800.970825	
61.857883	-20.185991	-800.193237	
62.429592	-20.124784	-800.884583	
62.838161	-20.056055	-800.817749	
63.284950	-19.975254	-800.948364	
63.775375	-19.892410	-801.534241	
64.035072	-19.815689	-801.042786	
64.525749	-19.725456	-801.827637	
65.058052	-19.674284	-801.866333	
65.548492	-19.567724	-801.624329	
66.045677	-19.511963	-802.104065	
66.325035	-19.414734	-802.070007	
66.822151	-19.331301	-802.622742	
67.188385	-19.268913	-803.013428	
67.554039	-19.155079	-802.641418	
67.976204	-19.051172	-803.286804	
68.411613	-18.955431	-803.476501	
68.841827	-18.907084	-803.591980	
69.333679	-18.831404	-803.888306	
69.767197	-18.752235	-803.892212	
70.229286	-18.660879	-804.529602	
70.493668	-18.585159	-804.311707	
70.918571	-18.475925	-805.083008	
71.288651	-18.404505	-805.506409	
71.622520	-18.275681	-805.367676	
72.015770	-18.198627	-806.220276	
72.378952	-18.079693	-805.916870	
72.789001	-18.021275	-806.548340	
73.193642	-17.931734	-806.770142	
73.696434	-17.824476	-806.894409	
74.118538	-17.768021	-807.314087	
74.353951	-17.706032	-807.436462	
74.699455	-17.591063	-808.036377	
75.058525	-17.501131	-808.737244	
75.454735	-17.377281	-808.754089	
75.858528	-17.295488	-809.286926	
76.158669	-17.203110	-809.302490	
76.577255	-17.129139	-809.901855	
76.967812	-17.028507	-810.037964	
77.367821	-16.924103	-810.525146	
77.769501	-16.820713	-811.010681	
78.053429	-16.729420	-811.045959	
78.482979	-16.672474	-811.884399	
78.791039	-16.578098	-812.357239	
79.123650	-16.468647	-812.296204	
79.521919	-16.365070	-813.032104	
80.190842	-16.164734	-813.770813	
80.581467	-16.078684	-814.196777	
80.967743	-15.979045	-814.514282	
81.324219	-15.862143	-815.011292	
81.546455	-15.802588	-815.477661	
81.945496	-15.676336	-816.401550	
82.501755	-15.492175	-816.846619	
82.914360	-15.373238	-817.934814	
83.132820	-15.273551	-818.014404	
83.525116	-15.144597	-818.733093	
83.826950	-15.029559	-819.324768	
84.128937	-14.916197	-819.735352	
84.489853	-14.785002	-820.587280	
84.712517	-14.681814	-820.745667	
85.052399	-14.557866	-821.839233	
85.557152	-14.352707	-822.794189	
85.907318	-14.233486	-823.739807	
86.110237	-14.145784	-824.133240	
86.474075	-14.023818	-824.870178	
86.757744	-13.885909	-825.475037	
87.066811	-13.795650	-825.820496	
87.442635	-13.574876	-826.661926	
87.655396	-13.429664	-827.114319	
88.068138	-13.206091	-828.849121	
88.271950	-13.086614	-829.815063	
13.969334	-23.771677	-816.209656	
15.621111	-23.841496	-814.336792	
17.072086	-23.830460	-812.244568	
18.494055	-23.945234	-810.908875	
19.527033	-23.920822	-810.275513	
20.436987	-23.850439	-809.563110	
21.119987	-23.822283	-808.779724	
21.993938	-23.811220	-808.500854	
22.736465	-23.759537	-807.624146	
23.492506	-23.729071	-807.258545	
24.425770	-23.699074	-806.580322	
25.146906	-23.647495	-805.975891	
26.065851	-23.600189	-805.444092	
26.886444	-23.558073	-804.950378	
27.612612	-23.548040	-804.668457	
28.468441	-23.454765	-803.911194	
28.948614	-23.411364	-804.016907	
29.715250	-23.299374	-803.450012	
30.227249	-23.310682	-803.307922	
30.782875	-23.265371	-803.176086	
31.639715	-23.162291	-802.751343	
32.141949	-23.158091	-802.565918	
33.091396	-23.081043	-801.789063	
33.643085	-23.011585	-801.779480	
34.184357	-22.916105	-801.672913	
34.923721	-22.841255	-801.521729	
35.282619	-22.817995	-801.459106	
36.116402	-22.745607	-800.992249	
36.572418	-22.714365	-801.225403	
37.065575	-22.661028	-800.989685	
37.938618	-22.589241	-800.755554	
38.296318	-22.542221	-800.620300	
39.123657	-22.467323	-800.541931	
39.654922	-22.405941	-800.237732	
40.178131	-22.333910	-799.906860	
40.960739	-22.251419	-799.916809	
41.292236	-22.213648	-799.887268	
42.063999	-22.152964	-799.945801	
42.492977	-22.086126	-799.747986	
42.999462	-22.029856	-799.377563	
43.736996	-21.956898	-799.471497	
44.051216	-21.925985	-799.400635	
44.777786	-21.840019	-799.520020	
45.326450	-21.777569	-799.179321	
45.864113	-21.703909	-799.149292	
46.527637	-21.617630	-799.383850	
46.836128	-21.569025	-798.959534	
47.502411	-21.508034	-799.335449	
47.943287	-21.436462	-798.934448	
48.441891	-21.376713	-798.929016	
49.104008	-21.313311	-799.324036	
49.424889	-21.253340	-798.886414	
50.057587	-21.168102	-799.329651	
50.589970	-21.102182	-799.033386	
51.135605	-21.033852	-798.856262	
51.710812	-20.962534	-799.389587	
52.057346	-20.897490	-799.074402	
52.628819	-20.837944	-799.268250	
53.077736	-20.785475	-799.431458	
53.573185	-20.720978	-799.126526	
54.074043	-20.687101	-799.604675	
54.536255	-20.608915	-799.124878	
55.036201	-20.548557	-799.589355	
55.541069	-20.438026	-799.070068	
56.072399	-20.332031	-799.436890	
56.582558	-20.316357	-799.898376	
56.968491	-20.222242	-799.311951	
57.561127	-20.147305	-800.000061	
58.037113	-20.104937	-800.015137	
58.502819	-20.053461	-799.852539	
58.918880	-19.996710	-800.071167	
59.411724	-19.875658	-799.974243	
59.930794	-19.761980	-800.205627	
60.459240	-19.692055	-800.028748	
60.926773	-19.614000	-800.046936	
61.353973	-19.600353	-800.535645	
61.853306	-19.528128	-799.950317	
62.319016	-19.484301	-800.456055	
63.226429	-19.282097	-800.777832	
63.682861	-19.202065	-801.242981	
64.010986	-19.126383	-801.027954	
64.473663	-19.068277	-801.709351	
65.532166	-18.883423	-801.783813	
65.956345	-18.780201	-802.063110	
66.264748	-18.710680	-802.032959	
66.724373	-18.620289	-802.430359	
67.084518	-18.540985	-802.522827	
67.484360	-18.437241	-802.573730	
67.937790	-18.372068	-803.052490	
68.301987	-18.301893	-803.082153	
68.719284	-18.275312	-803.277710	
69.221039	-18.170168	-803.734253	
69.688805	-18.066628	-803.788940	
70.113647	-17.949858	-804.305359	
70.415794	-17.898785	-804.085083	
70.832031	-17.871456	-804.854675	
71.232468	-17.724045	-804.948608	
71.587982	-17.620823	-805.035400	
71.992805	-17.526131	-805.894409	
72.294098	-17.448683	-805.803833	
72.744728	-17.359200	-806.394531	
73.152466	-17.235075	-806.571777	
73.570900	-17.169882	-806.736328	
73.958755	-17.110010	-807.390991	
74.302849	-17.041363	-807.600769	
74.644821	-16.958748	-808.171265	
74.994751	-16.811722	-808.316223	
75.379448	-16.708149	-808.432556	
75.804321	-16.616808	-809.172119	
76.086380	-16.521875	-809.073242	
76.522507	-16.430742	-809.714355	
76.903885	-16.298050	-809.834351	
77.300087	-16.206450	-810.216919	
77.724358	-16.119221	-811.041016	
77.992493	-16.026937	-810.904358	
78.395729	-15.955102	-811.584534	
78.706619	-15.850265	-811.895508	
79.059441	-15.749852	-812.209167	
79.468742	-15.657854	-812.908875	
79.698952	-15.571893	-812.754517	
80.136612	-15.477948	-813.682251	
80.512779	-15.346200	-814.083069	
80.880470	-15.249283	-814.130798	
81.280243	-15.139569	-814.881409	
81.524101	-15.094836	-815.505005	
81.858185	-14.953120	-815.919556	
82.160042	-14.861563	-816.447327	
82.450470	-14.747479	-816.741455	
82.865211	-14.646725	-817.848572	
83.065552	-14.556880	-817.944092	
83.457626	-14.423183	-818.438110	
83.759705	-14.313421	-818.916626	
84.070229	-14.210083	-819.501160	
84.437447	-14.108153	-820.473022	
84.649902	-13.998794	-820.530273	
84.993851	-13.900382	-821.632751	
85.234947	-13.792319	-821.865173	
85.502968	-13.699962	-822.557556	
85.848083	-13.576740	-823.502869	
86.042053	-13.474420	-823.739197	
86.394821	-13.329414	-824.722046	
86.677269	-13.190000	-825.417175	
86.969124	-13.058059	-825.811584	
87.395653	-12.966766	-826.674377	
87.600159	-12.870517	-826.916016	
87.827354	-12.768322	-827.871216	
88.014511	-12.652533	-828.632263	
14.249450	-23.375341	-815.718933	
15.552405	-23.375723	-814.666565	
17.101513	-23.316608	-811.828979	
18.412359	-23.434641	-811.398560	
19.458584	-23.401217	-810.252136	
20.409321	-23.350409	-809.324585	
21.121546	-23.316900	-808.717407	
21.932329	-23.291445	-808.493286	
22.659710	-23.256962	-807.847656	
23.434444	-23.246410	-807.308655	
24.351479	-23.207762	-806.902649	
25.087179	-23.146286	-805.789795	
25.977879	-23.113966	-805.390503	
26.834682	-23.056803	-804.860229	
27.568922	-23.030869	-804.249817	
28.412924	-22.996471	-803.918396	
28.914995	-22.970720	-803.654846	
29.651531	-22.938286	-803.565430	
30.180607	-22.860640	-803.339783	
30.779116	-22.785076	-803.034668	
31.601673	-22.716745	-802.442688	
32.119633	-22.704567	-802.376465	
33.062527	-22.651590	-801.841919	
33.619968	-22.605034	-801.707031	
34.174332	-22.582581	-801.670532	
34.907001	-22.508514	-801.376221	
35.245506	-22.464809	-801.295044	
36.089890	-22.370270	-801.065247	
36.543388	-22.327042	-801.136047	
37.028706	-22.277317	-800.754150	
37.901424	-22.208967	-800.724487	
38.260262	-22.182995	-800.716980	
39.089535	-22.098087	-800.541077	
39.614262	-22.046774	-800.148560	
40.143627	-21.988941	-799.956238	
40.929417	-21.910856	-799.785645	
41.269329	-21.870672	-799.782532	
42.040886	-21.816271	-799.828857	
42.467831	-21.741465	-799.760681	
42.966190	-21.691072	-799.411133	
43.711575	-21.625872	-799.457520	
44.012222	-21.585325	-799.429749	
44.748775	-21.519459	-799.617981	
45.291782	-21.439535	-799.034973	
45.847218	-21.363731	-799.132813	
46.491768	-21.293690	-799.202393	
46.806824	-21.235846	-798.767395	
47.469906	-21.187956	-799.246582	
47.929737	-21.109688	-798.721985	
48.420216	-21.046902	-799.014832	
49.079578	-20.972424	-799.137268	
49.394485	-20.926542	-798.963928	
50.041668	-20.850498	-799.167725	
50.566944	-20.756207	-798.881165	
51.090973	-20.697338	-798.911438	
51.679630	-20.647045	-799.256042	
52.026276	-20.578499	-798.958862	
52.590576	-20.480272	-799.290405	
53.046844	-20.402220	-799.395447	
53.552879	-20.306900	-798.959778	
54.040829	-20.234259	-799.933044	
54.498779	-20.130152	-798.926025	
54.973808	-20.065802	-799.446228	
55.522892	-20.008783	-798.991699	
56.041595	-19.950855	-799.384338	
56.566227	-19.887880	-799.830139	
56.942429	-19.775967	-799.334045	
57.495621	-19.776943	-800.547241	
57.958366	-19.711802	-799.964050	
58.426346	-19.618809	-799.582275	
58.975300	-19.529179	-800.147827	
59.315224	-19.478466	-799.836365	
59.929443	-19.419119	-800.156738	
60.449638	-19.332748	-800.079285	
60.904392	-19.278837	-800.160583	
61.272945	-19.111631	-801.213501	
61.834305	-18.998432	-799.859070	
62.251049	-18.939550	-800.348633	
62.675831	-18.939260	-800.488098	
63.176544	-18.853985	-800.855957	
63.617352	-18.805119	-801.361694	
63.986443	-18.722216	-800.982910	
64.478577	-18.651247	-801.521240	
64.953827	-18.505472	-801.796082	
65.430084	-18.432478	-801.553894	
65.876091	-18.395185	-802.066040	
66.237198	-18.307547	-801.984070	
66.656013	-18.233377	-802.355103	
67.031082	-18.169128	-802.479004	
67.457291	-18.100689	-802.482666	
67.935455	-17.990849	-803.098083	
68.249710	-17.930769	-803.026978	
68.701569	-17.797995	-803.421326	
69.181778	-17.703163	-803.388184	
69.617722	-17.568953	-803.798035	
70.036400	-17.574270	-804.244751	
70.386795	-17.431345	-804.098938	
70.753876	-17.344980	-804.557068	
71.193497	-17.322685	-804.804260	
71.567757	-17.250422	-805.004028	
71.929382	-17.144337	-805.692566	
72.272430	-17.038557	-806.006958	
72.676651	-16.959694	-806.505493	
73.106621	-16.826841	-806.565796	
73.516182	-16.686302	-806.872253	
73.877090	-16.627035	-807.672791	
74.254349	-16.540611	-807.525513	
74.600258	-16.485004	-807.914795	
74.964142	-16.432734	-808.093994	
75.347069	-16.332733	-808.390625	
75.785706	-16.256166	-809.175781	
76.057678	-16.171871	-809.039124	
76.495697	-16.070471	-809.691101	
76.891808	-15.976544	-809.952576	
77.268578	-15.860627	-810.195251	
77.677620	-15.781326	-810.924805	
77.963799	-15.696868	-810.897888	
78.359299	-15.594221	-811.560303	
78.667473	-15.523063	-811.711853	
79.049400	-15.419992	-812.325562	
79.443649	-15.331643	-813.068787	
79.681496	-15.251995	-812.941956	
80.119934	-15.131542	-813.719177	
80.488243	-15.011639	-814.065186	
80.836876	-14.881952	-814.298462	
81.225021	-14.797978	-814.732422	
81.480293	-14.728174	-815.233459	
81.828903	-14.616942	-815.936279	
82.114311	-14.524644	-816.407959	
82.420654	-14.417269	-816.654541	
82.816635	-14.300415	-817.601196	
83.041519	-14.231594	-817.934814	
83.428757	-14.064555	-818.387390	
83.745560	-13.953999	-818.863159	
84.046875	-13.846438	-819.489502	
84.949516	-13.510866	-821.469238	
85.205940	-13.399912	-821.871765	
85.449333	-13.277004	-822.238586	
85.804680	-13.157451	-823.386292	
86.008484	-13.061424	-823.639709	
86.354881	-12.916956	-824.468506	
86.648689	-12.820436	-825.184509	
86.956047	-12.707951	-825.636963	
87.337631	-12.525388	-826.390564	
87.561386	-12.390319	-826.953735	
87.771133	-12.274568	-827.706116	
88.170853	-12.035134	-829.461731	
14.116598	-22.835131	-815.934753	
15.444234	-22.869087	-814.615906	
17.148123	-22.907021	-811.634766	
18.288864	-22.947042	-811.216125	
19.341187	-22.915657	-810.213501	
20.304876	-22.887865	-809.467041	
21.120218	-22.833900	-808.788208	
21.936987	-22.773407	-808.107300	
22.639709	-22.759726	-807.568054	
23.371460	-22.754715	-807.246643	
24.262159	-22.693199	-806.447449	
25.009706	-22.664427	-805.792175	
25.913107	-22.610548	-805.212769	
26.768171	-22.582235	-804.747070	
27.490408	-22.552456	-804.582397	
28.348337	-22.507568	-803.869751	
28.872799	-22.467113	-803.562866	
29.580862	-22.293137	-803.618591	
30.092308	-22.228889	-803.174500	
30.755878	-22.299856	-802.895081	
31.567816	-22.229961	-802.676453	
32.052746	-22.198395	-802.428223	
33.001884	-22.133945	-801.754150	
33.579365	-22.066235	-801.699646	
34.131077	-21.971409	-801.557739	
34.855206	-21.851093	-801.461243	
35.178608	-21.811836	-801.194031	
36.020462	-21.767427	-801.058838	
36.489182	-21.731165	-800.986450	
36.963699	-21.692080	-800.850647	
37.835545	-21.600731	-800.525269	
38.207642	-21.578382	-800.556519	
39.029968	-21.497143	-800.211853	
39.556934	-21.424713	-799.984863	
40.100891	-21.359169	-799.613953	
40.858654	-21.274733	-799.803650	
41.209431	-21.243139	-799.699890	
41.952698	-21.175558	-799.696289	
42.411926	-21.111044	-799.381226	
42.880604	-21.042707	-799.179138	
43.635548	-20.966934	-799.366333	
43.954762	-20.943636	-799.227112	
44.687935	-20.844675	-799.175049	
45.239799	-20.777481	-799.114197	
45.784985	-20.710739	-798.704041	
46.437290	-20.649515	-799.024231	
46.763344	-20.594316	-798.899902	
47.424412	-20.515541	-799.132751	
47.881340	-20.461325	-798.852478	
48.366844	-20.400293	-798.798218	
49.026321	-20.306917	-798.911194	
49.338249	-20.271124	-798.950073	
49.981792	-20.188559	-798.929504	
50.514977	-20.125784	-798.988098	
51.021286	-20.052404	-798.687073	
51.621334	-19.981470	-799.288452	
51.986897	-19.924873	-798.590637	
52.534271	-19.876709	-799.179199	
52.990921	-19.820345	-799.350830	
53.500729	-19.741741	-798.862610	
53.990627	-19.698620	-799.624878	
54.445240	-19.585493	-798.736816	
54.955429	-19.537987	-799.301208	
55.497948	-19.435741	-798.949341	
55.994797	-19.350973	-799.202881	
56.514641	-19.269161	-799.682495	
56.849609	-19.223328	-799.369995	
57.364105	-19.153069	-799.965088	
57.849274	-19.117805	-800.191284	
58.344181	-19.091682	-799.551514	
58.886749	-19.020897	-800.474731	
59.264297	-18.937210	-799.614014	
59.890682	-18.761555	-800.055603	
60.410946	-18.706264	-800.071167	
60.832890	-18.638794	-799.982605	
61.143673	-18.628824	-800.466919	
61.770092	-18.572252	-799.547485	
62.172764	-18.513798	-800.557861	
62.627186	-18.403942	-800.578918	
63.111149	-18.307919	-800.479065	
63.548504	-18.230301	-800.929626	
63.912556	-18.152733	-800.972595	
64.410400	-18.050634	-801.200500	
64.884674	-17.946617	-801.236450	
65.366249	-17.855360	-801.496704	
65.822212	-17.799316	-802.223877	
66.157593	-17.721342	-801.878906	
66.587257	-17.646067	-802.315735	
66.998665	-17.579155	-802.644104	
67.411804	-17.489750	-802.429749	
67.884064	-17.391260	-802.939575	
68.186684	-17.316578	-802.773376	
68.668381	-17.229591	-803.240234	
69.112419	-17.143150	-803.512878	
69.534264	-17.052195	-803.712708	
70.649567	-16.888535	-804.338440	
71.044945	-16.756683	-804.164063	
71.512260	-16.611885	-804.941711	
71.863388	-16.530830	-805.619995	
72.164223	-16.467224	-805.643494	
72.549767	-16.399336	-806.245789	
73.463425	-16.173672	-806.794617	
73.816040	-16.085480	-807.366272	
74.158554	-15.993682	-807.376099	
74.555099	-15.904432	-807.916687	
74.900139	-15.810248	-807.695740	
75.276855	-15.698890	-808.110229	
75.716438	-15.622680	-808.916382	
76.002312	-15.539553	-808.984924	
76.429443	-15.423990	-809.447754	
76.830170	-15.342566	-809.797852	
77.214790	-15.235154	-809.981628	
77.616249	-15.150988	-810.783386	
77.927917	-15.068975	-810.912964	
78.315811	-14.969860	-811.453979	
78.634949	-14.878257	-811.722351	
78.989258	-14.778669	-812.008728	
79.378372	-14.687969	-812.772644	
79.649101	-14.597872	-812.900146	
80.050636	-14.478321	-813.401672	
80.389366	-14.364448	-813.674622	
80.765739	-14.258646	-814.163757	
81.168930	-14.142639	-814.908508	
81.392654	-14.058088	-814.805115	
81.782997	-13.938050	-815.842712	
82.062393	-13.870244	-816.398254	
82.367073	-13.767138	-816.571045	
82.749916	-13.631626	-817.212036	
82.986549	-13.562356	-817.762146	
83.367668	-13.418611	-818.282104	
83.689575	-13.310204	-818.732788	
84.557190	-13.022827	-820.388611	
84.897560	-12.902427	-821.295044	
85.155365	-12.815297	-821.825806	
85.412666	-12.691247	-822.197571	
85.959610	-12.459750	-823.527466	
86.291962	-12.312943	-824.256531	
86.665405	-12.205910	-824.981018	
86.948303	-12.119249	-825.053589	
87.283852	-12.021643	-826.201111	
87.727684	-11.793810	-827.712891	
88.120483	-11.564787	-829.326660	
13.923449	-22.302851	-816.296570	
15.244385	-22.339413	-814.709656	
17.035320	-22.427254	-812.405762	
18.178040	-22.460262	-811.541504	
19.187937	-22.393454	-810.373352	
20.183903	-22.379871	-809.676514	
21.076221	-22.350782	-808.646301	
21.973928	-22.314415	-807.855103	
22.628563	-22.314404	-807.556519	
23.279848	-22.286860	-807.388977	
24.229124	-22.216942	-806.533020	
24.973885	-22.189072	-805.806885	
25.851170	-22.151415	-805.285156	
26.690468	-22.135870	-804.923767	
27.457561	-22.071661	-803.949463	
28.294861	-22.024055	-803.889954	
28.821917	-22.005186	-803.692444	
29.544378	-21.934217	-803.382141	
30.039480	-21.871174	-803.200806	
30.706364	-21.823147	-802.672974	
31.505608	-21.774294	-802.469788	
32.002949	-21.741495	-802.351990	
32.969166	-21.690514	-801.870667	
33.534306	-21.633295	-801.417664	
34.086834	-21.598713	-801.662109	
34.808582	-21.508926	-801.494446	
35.152328	-21.457939	-801.117371	
35.965668	-21.371632	-801.054565	
36.441772	-21.335274	-800.985107	
36.923717	-21.285191	-800.516968	
37.788944	-21.204988	-800.473145	
38.161396	-21.175619	-800.287170	
38.996742	-21.112280	-800.318420	
39.513805	-21.054775	-800.107361	
40.059948	-20.996595	-799.702637	
40.823746	-20.925232	-799.672668	
41.172710	-20.886177	-799.570618	
41.928688	-20.814775	-799.707825	
42.370251	-20.754797	-799.413818	
42.859310	-20.692459	-799.157959	
43.605072	-20.620092	-799.262207	
43.917889	-20.591249	-799.078369	
44.663826	-20.493542	-798.990112	
45.204601	-20.433035	-799.004150	
45.744053	-20.365177	-798.714478	
46.411415	-20.303120	-798.975830	
46.724888	-20.262497	-798.808716	
47.375130	-20.175341	-799.042908	
47.845711	-20.130215	-799.060791	
48.328411	-20.041534	-798.501648	
48.990089	-19.977865	-798.964661	
49.302402	-19.923355	-798.827515	
49.948071	-19.854042	-798.972412	
50.476273	-19.776308	-798.974976	
51.001984	-19.702339	-798.688293	
51.586823	-19.628023	-799.357056	
51.962555	-19.547001	-798.603455	
52.499252	-19.513481	-799.190552	
52.943180	-19.460638	-799.333618	
53.465569	-19.338358	-798.795105	
53.954258	-19.285864	-799.429749	
54.420448	-19.202028	-798.904846	
54.910366	-19.158659	-799.366150	
55.468735	-19.059698	-799.560730	
55.972000	-18.991812	-799.107605	
56.479198	-18.918360	-799.687012	
56.825508	-18.839714	-799.246704	
57.342548	-18.781675	-799.753174	
57.815804	-18.740671	-800.216064	
58.281002	-18.639166	-799.751770	
59.257030	-18.487257	-799.736572	
59.873943	-18.405270	-799.935608	
60.370068	-18.351191	-800.073975	
60.788109	-18.273136	-799.968201	
61.118149	-18.225756	-800.644836	
61.755188	-18.065943	-799.423767	
62.108566	-18.017494	-800.347595	
63.038292	-17.901989	-800.583130	
63.458496	-17.852791	-800.939453	
63.879040	-17.767326	-800.970703	
64.387749	-17.664366	-801.055786	
64.857651	-17.576509	-801.263916	
65.318314	-17.501530	-801.387146	
65.774315	-17.420826	-801.996643	
66.114754	-17.327465	-801.876892	
66.549400	-17.273808	-802.105530	
66.967995	-17.225790	-802.711792	
67.387421	-17.083281	-802.499695	
67.822350	-17.035898	-803.138245	
68.169067	-16.950153	-803.005798	
68.585442	-16.852951	-803.334229	
69.051270	-16.794847	-804.100525	
69.486465	-16.650478	-803.664734	
69.872154	-16.600643	-804.522766	
70.270668	-16.468723	-803.992249	
71.481827	-16.266708	-804.938904	
71.828476	-16.157469	-805.730042	
72.128197	-16.062956	-805.680054	
72.504723	-15.990839	-806.216614	
72.961296	-15.902577	-807.104675	
73.411079	-15.777414	-806.762695	
73.788651	-15.680772	-807.378357	
74.114906	-15.622127	-807.278748	
74.523170	-15.526447	-807.785706	
74.888252	-15.414274	-808.051208	
75.238876	-15.352501	-808.082031	
75.681404	-15.248517	-808.796082	
75.967346	-15.167274	-808.859192	
76.406456	-15.078718	-809.399658	
76.787552	-14.959502	-809.606018	
77.191689	-14.879518	-809.960815	
77.593338	-14.771619	-810.846802	
77.893211	-14.688273	-810.782898	
78.274796	-14.602965	-811.284912	
78.601677	-14.480119	-811.625854	
78.958740	-14.409264	-811.891846	
79.341331	-14.307549	-812.609131	
79.611206	-14.215964	-812.587891	
80.014397	-14.110840	-813.238342	
80.367355	-14.003952	-813.684265	
80.735031	-13.899378	-814.049561	
81.122993	-13.787428	-814.843323	
81.367294	-13.694921	-814.925049	
81.743095	-13.582174	-815.643555	
82.039017	-13.512239	-816.396851	
82.326675	-13.398248	-816.474426	
82.727272	-13.261396	-817.088562	
82.934761	-13.187793	-817.419373	
83.341347	-13.075480	-818.346863	
83.647949	-12.941195	-818.599121	
83.967972	-12.840332	-819.346924	
84.303955	-12.726477	-819.979797	
84.533142	-12.645164	-820.458008	
84.874649	-12.513447	-821.286377	
85.114021	-12.406085	-821.797913	
85.388130	-12.274096	-822.156677	
85.720345	-12.161384	-823.327881	
85.909874	-12.051958	-823.323975	
86.254539	-11.935069	-824.179260	
86.648094	-11.833633	-824.728271	
86.938492	-11.704802	-825.012817	
87.237167	-11.557672	-826.043884	
87.450401	-11.439878	-826.692566	
87.675240	-11.330605	-827.663879	
87.861290	-11.203143	-828.373962	
88.271133	-10.865287	-830.227051	
15.122622	-21.846748	-814.640137	
19.045055	-21.885189	-810.142578	
20.088800	-21.873098	-809.384888	
20.946703	-21.877102	-808.927307	
21.950069	-21.811876	-807.733215	
22.617218	-21.801468	-807.528198	
23.181154	-21.813232	-807.080200	
24.202625	-21.741322	-806.429321	
24.901625	-21.702818	-805.932617	
25.796965	-21.674099	-805.356873	
26.627478	-21.636045	-804.688354	
27.413446	-21.591793	-804.111450	
28.244637	-21.534912	-803.710815	
28.762976	-21.538210	-803.499939	
29.496679	-21.532667	-803.481628	
30.008541	-21.463030	-802.984070	
30.549175	-21.361906	-802.643066	
31.433363	-21.289261	-802.286072	
31.953236	-21.271389	-802.057190	
32.923691	-21.246311	-801.858643	
33.485638	-21.205416	-801.333923	
34.031540	-21.183149	-801.331604	
34.736637	-21.077885	-801.638306	
35.113987	-21.045952	-801.045715	
35.919395	-20.950630	-800.957947	
36.393345	-20.920525	-800.904297	
36.880154	-20.861753	-800.652710	
37.745689	-20.792761	-800.565796	
38.123165	-20.770702	-800.326538	
38.948364	-20.698919	-800.153442	
39.478588	-20.645954	-799.912598	
40.005524	-20.591995	-799.487671	
40.790878	-20.534010	-799.593628	
41.130890	-20.515606	-799.524780	
41.887760	-20.440699	-799.758484	
42.330963	-20.364111	-799.505188	
42.835300	-20.301683	-799.063965	
43.566029	-20.228203	-799.235901	
43.883770	-20.195225	-799.034241	
44.633511	-20.114157	-798.906128	
45.162712	-20.054039	-799.029297	
45.703281	-19.965801	-798.679749	
46.375618	-19.891727	-798.941406	
46.669670	-19.855185	-798.820374	
47.357151	-19.803253	-798.923462	
47.784176	-19.732876	-798.904114	
48.281502	-19.645737	-798.628601	
48.956989	-19.575930	-799.088257	
49.271877	-19.508142	-798.603638	
49.897682	-19.453960	-798.916809	
50.431763	-19.357061	-798.614258	
50.966560	-19.280817	-798.545715	
51.539249	-19.207903	-799.214172	
51.930256	-19.129827	-798.656677	
52.464077	-19.066456	-799.079285	
52.899708	-18.998016	-798.951599	
53.431835	-18.920273	-798.819763	
53.923092	-18.849949	-799.331787	
54.354885	-18.763863	-798.745361	
54.867481	-18.683802	-799.262817	
55.371216	-18.606407	-799.428223	
55.941059	-18.540648	-799.110229	
56.437214	-18.476793	-799.486633	
56.787766	-18.397741	-799.183960	
57.294525	-18.323460	-799.641357	
57.747723	-18.244251	-799.552002	
58.234367	-18.153860	-799.668579	
58.668228	-18.094749	-800.227356	
59.186081	-18.015265	-799.939331	
59.837238	-18.021704	-799.917847	
60.304749	-17.952827	-799.820923	
60.726284	-17.854843	-799.924316	
61.142643	-17.720709	-800.332520	
61.594147	-17.608011	-799.868652	
62.074627	-17.569136	-800.539307	
62.494423	-17.522902	-800.740234	
62.951077	-17.435944	-800.556274	
63.389614	-17.344128	-800.647339	
63.843887	-17.301075	-801.078796	
64.299934	-17.241831	-801.072083	
64.783577	-17.161619	-801.099731	
65.269798	-17.063976	-801.303955	
65.707375	-16.974051	-801.644775	
66.070351	-16.883450	-801.765320	
66.467552	-16.820528	-802.242554	
66.880531	-16.718071	-802.163879	
67.322411	-16.630854	-802.527832	
67.750732	-16.591429	-803.192810	
68.114891	-16.499529	-802.944702	
68.515160	-16.418980	-803.317932	
68.948196	-16.313145	-803.419312	
69.436005	-16.231220	-803.543274	
69.848167	-16.136482	-804.341858	
70.215874	-16.017620	-804.136353	
70.517601	-15.904587	-804.530212	
71.459839	-15.859030	-804.888550	
71.800674	-15.727131	-805.722656	
72.081070	-15.603758	-805.610291	
72.469849	-15.537628	-806.155090	
72.931839	-15.438872	-807.095520	
73.356117	-15.321385	-806.570984	
73.755554	-15.252404	-807.165222	
74.068794	-15.170540	-807.094849	
74.486732	-15.078058	-807.710938	
74.844154	-15.002520	-807.960022	
75.218033	-14.913074	-808.063599	
75.651039	-14.835835	-808.804626	
75.918365	-14.757478	-808.669189	
76.356445	-14.637391	-809.351196	
76.751892	-14.554606	-809.568726	
77.152702	-14.447600	-809.846985	
77.566727	-14.345297	-810.685242	
77.838661	-14.255247	-810.628845	
78.231094	-14.168094	-811.261475	
78.551811	-14.065661	-811.544312	
78.920113	-13.959475	-811.853088	
79.300926	-13.870269	-812.502686	
79.565659	-13.784893	-812.568726	
79.988213	-13.682038	-813.333862	
80.348022	-13.589196	-813.744873	
80.698692	-13.473093	-813.944946	
81.079468	-13.372968	-814.729980	
81.320953	-13.311587	-814.779175	
81.703735	-13.180496	-815.539124	
82.000694	-13.094375	-816.159485	
82.284500	-13.000201	-816.281982	
82.697647	-12.879920	-817.223450	
82.895706	-12.798943	-817.293030	
83.301483	-12.668177	-818.256104	
83.598717	-12.537768	-818.530029	
83.914711	-12.426822	-819.117371	
84.268944	-12.307453	-819.797668	
84.485741	-12.213981	-820.252319	
84.841469	-12.082119	-821.224304	
85.072426	-11.983660	-821.607117	
85.339470	-11.861929	-821.976746	
85.671631	-11.749753	-823.249329	
85.860130	-11.646810	-823.325867	
86.212990	-11.537795	-824.058533	
86.571815	-11.386119	-824.290466	
86.886780	-11.196997	-824.820007	
87.177910	-11.057970	-825.907959	
87.394043	-10.935537	-826.663513	
88.221466	-10.436841	-830.177490	
17.823521	-21.380512	-811.352905	
18.841555	-21.353981	-810.479858	
19.813683	-21.355558	-809.731384	
20.760221	-21.347473	-809.106201	
21.780642	-21.299496	-808.013428	
22.566795	-21.288473	-807.320496	
23.251415	-21.219461	-806.495239	
24.198732	-21.224482	-806.363037	
24.848734	-21.192886	-805.665222	
25.739637	-21.157345	-805.215942	
26.567122	-21.130091	-804.554749	
27.328690	-21.101557	-804.477600	
28.171593	-21.042791	-803.709656	
28.679045	-20.988098	-803.550232	
29.422396	-20.851688	-803.173279	
29.956039	-20.811783	-802.803650	
31.397392	-20.772903	-802.021423	
31.891048	-20.728720	-802.215698	
32.831871	-20.646162	-801.315430	
33.422176	-20.613462	-801.433899	
33.967072	-20.551746	-801.239807	
34.647026	-20.471260	-801.544922	
35.028194	-20.375965	-801.100830	
35.848057	-20.352167	-800.747498	
36.325348	-20.312246	-800.823242	
36.828461	-20.266899	-800.534058	
37.691185	-20.176287	-800.221985	
38.063377	-20.141489	-800.198303	
38.893646	-20.068842	-800.059448	
39.413929	-20.012096	-799.766235	
39.940796	-19.951498	-799.579468	
40.731236	-19.857677	-799.468750	
41.056133	-19.828356	-799.382996	
41.804634	-19.763683	-799.492004	
42.261047	-19.694294	-799.328735	
42.774860	-19.643740	-798.886719	
43.509624	-19.568636	-799.179443	
43.825985	-19.529148	-798.941040	
44.559128	-19.441727	-798.987610	
45.089424	-19.392685	-798.852356	
45.646873	-19.320404	-798.648682	
46.307285	-19.236986	-798.831421	
46.604610	-19.197111	-798.703552	
47.282448	-19.138363	-798.789490	
47.736336	-19.085966	-798.832153	
48.234009	-18.999735	-798.434265	
48.877182	-18.945259	-798.838440	
49.237782	-18.888309	-798.554993	
49.843300	-18.804232	-798.786743	
50.375652	-18.721737	-798.667419	
50.902340	-18.666391	-798.283142	
51.491608	-18.597675	-798.835449	
51.869358	-18.520714	-798.298035	
52.407330	-18.496058	-798.762451	
52.891552	-18.430470	-799.035278	
53.390598	-18.364187	-798.671875	
53.878883	-18.305645	-799.144470	
54.313702	-18.253645	-798.670776	
54.816597	-18.164007	-799.042053	
55.324005	-18.086191	-799.182983	
55.882229	-17.964394	-798.803406	
56.385696	-17.901321	-799.367432	
56.734570	-17.804823	-798.936401	
57.255959	-17.756716	-799.541687	
57.708935	-17.698034	-799.286743	
58.172565	-17.641222	-799.430603	
58.612354	-17.616518	-799.916870	
59.098282	-17.464626	-799.373718	
59.773022	-17.403753	-799.986023	
60.227543	-17.347837	-799.722168	
60.665600	-17.231371	-799.675781	
61.157768	-17.169933	-800.333557	
61.494698	-17.080406	-799.986267	
61.983791	-17.002693	-800.316650	
62.432693	-16.986340	-800.848633	
62.888664	-16.867199	-800.392700	
63.367947	-16.777054	-800.594666	
63.756958	-16.735952	-800.873108	
64.209877	-16.659363	-800.989502	
64.664589	-16.571848	-801.343262	
65.176765	-16.454317	-801.310181	
65.627312	-16.397936	-801.891968	
65.986534	-16.357653	-801.655823	
66.393150	-16.278578	-802.015869	
66.811707	-16.149071	-802.127014	
67.210091	-16.053879	-802.356750	
67.667992	-16.005545	-802.783325	
68.016151	-15.918212	-802.654846	
68.448677	-15.863842	-803.265198	
68.932693	-15.760842	-803.479797	
69.387169	-15.627902	-803.420227	
69.784912	-15.583739	-803.923828	
70.156425	-15.511741	-804.006775	
70.508308	-15.464370	-804.451599	
71.431976	-15.220968	-804.889404	
71.754356	-15.131557	-805.284973	
72.024925	-15.079678	-805.429993	
72.419678	-14.990644	-806.068359	
72.842216	-14.907547	-806.306641	
73.313889	-14.792488	-806.475647	
73.697655	-14.689665	-806.952454	
74.022568	-14.582383	-806.964539	
74.435608	-14.503606	-807.600220	
74.783661	-14.393730	-807.796143	
75.156044	-14.294430	-807.861450	
75.596817	-14.216573	-808.633972	
75.869820	-14.112314	-808.591248	
76.311943	-14.012253	-809.227051	
76.719490	-13.935684	-809.638306	
77.098778	-13.825688	-809.817444	
77.496788	-13.761998	-810.455994	
77.795303	-13.645372	-810.581360	
78.170975	-13.538875	-810.982971	
78.497314	-13.466303	-811.317749	
78.854797	-13.359124	-811.615540	
79.267319	-13.280815	-812.504517	
79.507156	-13.179014	-812.452637	
79.919273	-13.064432	-813.090820	
80.296188	-12.963732	-813.660950	
80.644722	-12.831522	-813.802795	
81.024124	-12.732745	-814.635254	
81.241653	-12.649855	-814.697388	
81.646591	-12.533896	-815.355835	
81.918343	-12.433715	-815.625549	
82.237839	-12.333968	-816.251709	
82.622375	-12.222385	-816.930115	
82.850937	-12.146191	-817.219360	
83.237640	-12.011627	-818.041260	
83.552200	-11.908768	-818.622559	
83.843636	-11.786443	-818.847534	
84.215187	-11.658327	-819.679016	
84.407578	-11.571664	-819.921448	
84.767967	-11.459239	-820.911987	
85.019859	-11.364412	-821.547058	
85.263466	-11.243258	-821.799744	
85.804710	-11.024722	-823.385376	
86.141747	-10.864666	-823.985107	
86.521568	-10.751750	-824.440979	
86.836876	-10.680810	-825.009949	
87.112465	-10.559120	-825.846985	
87.324287	-10.432330	-826.610535	
87.734535	-10.196897	-828.209351	
87.951378	-10.067075	-829.012451	
88.183182	-9.929728	-830.031372	
88.372299	-9.808097	-830.584473	
14.831739	-20.802929	-815.258545	
16.258242	-20.869854	-813.740662	
17.603212	-20.897928	-811.826233	
18.583700	-20.864706	-810.821655	
19.552080	-20.857952	-810.565491	
20.505781	-20.837372	-808.812012	
21.561026	-20.832035	-807.735474	
22.472294	-20.786161	-807.135559	
23.285936	-20.766151	-806.715210	
24.205645	-20.785402	-806.173523	
24.753838	-20.737785	-805.840027	
25.665279	-20.700891	-805.077698	
26.512428	-20.660915	-804.443298	
27.221809	-20.639238	-804.238464	
28.094097	-20.578665	-803.538940	
28.592939	-20.581017	-803.598877	
29.401428	-20.529594	-803.071716	
29.914692	-20.415194	-802.871521	
30.475464	-20.378757	-802.728394	
31.358055	-20.336113	-802.102173	
31.863312	-20.302965	-802.093933	
32.803177	-20.233290	-801.358643	
33.365025	-20.226540	-801.193359	
33.917831	-20.211674	-801.084595	
34.644230	-20.109722	-801.101563	
34.987419	-20.060431	-800.794556	
35.794415	-19.966682	-800.787048	
36.283936	-19.933157	-800.677429	
36.774513	-19.892433	-800.335815	
37.641804	-19.823795	-800.319092	
38.027840	-19.783215	-800.102112	
38.868744	-19.701767	-800.071228	
39.382210	-19.662073	-799.812073	
39.910622	-19.607712	-799.279053	
40.691418	-19.545643	-799.515625	
41.019478	-19.511715	-799.379211	
41.779854	-19.445921	-799.299744	
42.230217	-19.398651	-799.383667	
42.748192	-19.335871	-798.947021	
43.488537	-19.269819	-799.037415	
43.784847	-19.225554	-798.720276	
44.514214	-19.142550	-798.981384	
45.061558	-19.103064	-798.892639	
45.623573	-19.018620	-798.446167	
46.278774	-18.933224	-798.879761	
46.587151	-18.907965	-798.641235	
47.238518	-18.826836	-798.779236	
47.712055	-18.776196	-798.710815	
48.206867	-18.709610	-798.469482	
48.850708	-18.612890	-798.656372	
49.199249	-18.554306	-798.315002	
49.828205	-18.514702	-798.789917	
50.351395	-18.417902	-798.731201	
50.878139	-18.324224	-798.449341	
51.461521	-18.260660	-798.922791	
51.858440	-18.185297	-798.212097	
52.367699	-18.105518	-798.828918	
52.878315	-18.030289	-799.057678	
53.372849	-17.959476	-798.710632	
53.846947	-17.892401	-799.101501	
54.277424	-17.804771	-798.581543	
54.790817	-17.753668	-799.036255	
55.312592	-17.672306	-799.214722	
55.856522	-17.607004	-798.987305	
56.350452	-17.535934	-799.224548	
56.712063	-17.462122	-798.806274	
57.217785	-17.392694	-799.358276	
57.696003	-17.303488	-799.345703	
58.142910	-17.227743	-799.455688	
58.580528	-17.154915	-799.674622	
59.057056	-17.107161	-799.391296	
59.718975	-17.078737	-799.619812	
60.174500	-17.008627	-799.605530	
60.642567	-16.911322	-799.729187	
61.171394	-16.841978	-800.129822	
61.487804	-16.787289	-800.003113	
61.963280	-16.691090	-800.219360	
62.389240	-16.634054	-800.182007	
62.858788	-16.535896	-800.231079	
63.315128	-16.448559	-800.601868	
63.695137	-16.384808	-800.765747	
64.163605	-16.292315	-801.001221	
64.645981	-16.209892	-801.380066	
65.139061	-16.128643	-801.183838	
65.618889	-16.047033	-801.863403	
65.911499	-15.929844	-801.549866	
66.324547	-15.832072	-801.674500	
66.749207	-15.805438	-802.014038	
67.166695	-15.746665	-802.177368	
67.649643	-15.660665	-802.785706	
67.962814	-15.567213	-802.736816	
68.408760	-15.462811	-803.215271	
68.907448	-15.373806	-803.352478	
69.353157	-15.303985	-803.359619	
69.754456	-15.192270	-803.896057	
70.129951	-15.099765	-803.810608	
70.507317	-15.020034	-804.407837	
71.385048	-14.859671	-804.608398	
71.746574	-14.810244	-805.071045	
72.003899	-14.687506	-805.275879	
72.389046	-14.564594	-805.958191	
72.806381	-14.466725	-806.031494	
73.270035	-14.360310	-806.272278	
73.658974	-14.285389	-806.888306	
74.008934	-14.215104	-806.886658	
74.414619	-14.155273	-807.554504	
74.767372	-14.079130	-807.876099	
75.126892	-14.002482	-807.924561	
75.566170	-13.885634	-808.589905	
75.856842	-13.822255	-808.652527	
76.287796	-13.712497	-809.235291	
76.685623	-13.618175	-809.556396	
77.063431	-13.511481	-809.633240	
77.468987	-13.419174	-810.425537	
77.754066	-13.335295	-810.379700	
78.146973	-13.232262	-810.998657	
78.473709	-13.150917	-811.335205	
78.820892	-13.064589	-811.571045	
79.229721	-12.946544	-812.293640	
79.486557	-12.874403	-812.488464	
79.897202	-12.748006	-813.054077	
80.238480	-12.649210	-813.432556	
80.613480	-12.526511	-813.776123	
81.015923	-12.430009	-814.690552	
81.231033	-12.349567	-814.763733	
81.615433	-12.233949	-815.309875	
81.887711	-12.136153	-815.501465	
82.205246	-12.030072	-816.147766	
82.589417	-11.907594	-816.965454	
82.823952	-11.812323	-817.167480	
83.208534	-11.690239	-817.918945	
83.522987	-11.592255	-818.710693	
83.809875	-11.458388	-818.822754	
84.185677	-11.328217	-819.721558	
84.388908	-11.229374	-820.006104	
84.723503	-11.107360	-820.723633	
84.970245	-11.006980	-821.306702	
85.230270	-10.884720	-821.928162	
85.566704	-10.748343	-822.987488	
85.773300	-10.662823	-823.461060	
86.095032	-10.535717	-823.899963	
86.771957	-10.279858	-824.975586	
87.090904	-10.122156	-825.833923	
87.298668	-9.985443	-826.410156	
87.721588	-9.734952	-828.115906	
87.919456	-9.611429	-828.948425	
88.134834	-9.488924	-829.998108	
16.179100	-20.409365	-813.116943	
17.335981	-20.412947	-812.116150	
18.315138	-20.388590	-811.207703	
19.332874	-20.377893	-809.871155	
20.266211	-20.382309	-809.285828	
21.238745	-20.373276	-808.778320	
22.261829	-20.380465	-807.320129	
23.178200	-20.340818	-806.831055	
24.132116	-20.285334	-806.175232	
24.702011	-20.272985	-805.891418	
25.622383	-20.261301	-804.838135	
26.420603	-20.228880	-804.614014	
27.999781	-20.121569	-803.708679	
28.432156	-20.045589	-803.661011	
29.297134	-19.954718	-803.267151	
29.875084	-19.966284	-802.779846	
30.439281	-19.962633	-802.875671	
31.323423	-19.903475	-802.245422	
31.834513	-19.846548	-801.961609	
32.746944	-19.775990	-801.402222	
33.293541	-19.730562	-801.469482	
33.827644	-19.610331	-801.127563	
34.554703	-19.498316	-801.317078	
34.931900	-19.484705	-801.005798	
35.760147	-19.459282	-800.677185	
36.228233	-19.422659	-800.578735	
36.725296	-19.384686	-800.401978	
37.587711	-19.305916	-800.135254	
37.977554	-19.286928	-800.175720	
38.802364	-19.182934	-799.987366	
39.314957	-19.116945	-799.783264	
39.845585	-19.055437	-799.327087	
40.631786	-18.971102	-799.255737	
40.962845	-18.926737	-799.195129	
41.723782	-18.836794	-799.137146	
42.172749	-18.798603	-799.161377	
42.674706	-18.757122	-798.762390	
43.408199	-18.669897	-799.036255	
43.727512	-18.626347	-798.976074	
44.454346	-18.560951	-798.852783	
45.019936	-18.486280	-798.656433	
45.570366	-18.412565	-798.300293	
46.227402	-18.348978	-798.908569	
46.535149	-18.303160	-798.379272	
47.195194	-18.247324	-798.714539	
47.655022	-18.177515	-798.436584	
48.140354	-18.107883	-798.054810	
48.802952	-18.055237	-798.763184	
49.130466	-17.991468	-798.103394	
49.770416	-17.910061	-798.548889	
50.290043	-17.842842	-798.214050	
50.834732	-17.780678	-798.283264	
51.383549	-17.743534	-798.753662	
51.829639	-17.679539	-798.049744	
52.315571	-17.620907	-798.709595	
52.812698	-17.558250	-798.371399	
53.324039	-17.502354	-798.412537	
53.762611	-17.424679	-798.913635	
54.254440	-17.344738	-798.496887	
54.742092	-17.289003	-798.857788	
55.293072	-17.215498	-799.269104	
55.811134	-17.097330	-798.712646	
56.316978	-17.019152	-799.291565	
56.663773	-16.955835	-798.512817	
57.173576	-16.904545	-799.356140	
58.096775	-16.751196	-799.290955	
58.550919	-16.686369	-799.703491	
59.001171	-16.581455	-799.403931	
59.630291	-16.542072	-799.514404	
60.135201	-16.465706	-799.625671	
60.599411	-16.389935	-799.652527	
61.174728	-16.265966	-799.882263	
61.470989	-16.213720	-799.650269	
61.909912	-16.171436	-800.208130	
62.322830	-16.116367	-799.898193	
62.811958	-16.007162	-800.072388	
63.289303	-15.936565	-800.802307	
63.631306	-15.852501	-800.534851	
64.133392	-15.768638	-800.873962	
64.611015	-15.666212	-801.097229	
65.088173	-15.563979	-801.112976	
65.540909	-15.497906	-801.723450	
65.839088	-15.439919	-801.624268	
66.279144	-15.351275	-801.927368	
66.685104	-15.318168	-802.297913	
67.135368	-15.199430	-802.192017	
67.596375	-15.094364	-802.658875	
67.901459	-15.027163	-802.618408	
68.372253	-14.946699	-803.034485	
68.845161	-14.844775	-803.119019	
69.272522	-14.781345	-803.152893	
69.694092	-14.740329	-803.931030	
70.118004	-14.624299	-803.727722	
70.547478	-14.490800	-804.293762	
70.886955	-14.406791	-804.154175	
71.293365	-14.373669	-804.579895	
71.698357	-14.282311	-804.970947	
71.977600	-14.200636	-805.514160	
72.333496	-14.103607	-805.752625	
72.796005	-14.011128	-806.153870	
73.222305	-13.878539	-806.274292	
73.617317	-13.789490	-806.755920	
73.946747	-13.705957	-806.513977	
74.353638	-13.623114	-807.324829	
74.702850	-13.533515	-807.629272	
75.077194	-13.426741	-807.774963	
75.500786	-13.344160	-808.360046	
75.785912	-13.267428	-808.363037	
76.222473	-13.160833	-808.998169	
76.613098	-13.059640	-809.132507	
77.015976	-12.941567	-809.488586	
77.409630	-12.861969	-810.197876	
77.692696	-12.778198	-810.224121	
78.092751	-12.675261	-810.861572	
78.425911	-12.590718	-811.250427	
78.764954	-12.485723	-811.461365	
79.157639	-12.384211	-811.973816	
79.408325	-12.278818	-812.071777	
79.854057	-12.175949	-813.041992	
80.187889	-12.075315	-813.173035	
80.553001	-11.940102	-813.652161	
80.945229	-11.869590	-814.424500	
81.188293	-11.785810	-814.783447	
81.568146	-11.644516	-815.240967	
81.864349	-11.546149	-815.580566	
82.149124	-11.444151	-816.019165	
82.541931	-11.348198	-816.998352	
82.740120	-11.243605	-816.809204	
83.145508	-11.128778	-817.701965	
83.458984	-11.035880	-818.460266	
83.764374	-10.903953	-818.789551	
84.117073	-10.779377	-819.467957	
84.342628	-10.691749	-819.866943	
84.690254	-10.594323	-820.931824	
84.916512	-10.485447	-821.110229	
85.183289	-10.400838	-821.892700	
85.512428	-10.279123	-822.752258	
85.714745	-10.165184	-823.165833	
86.050140	-9.988437	-823.983337	
86.363098	-9.837679	-824.442627	
86.710541	-9.762215	-824.960205	
87.047218	-9.674601	-825.740479	
87.261200	-9.535725	-826.294678	
87.486015	-9.421679	-827.229980	
87.678024	-9.310811	-827.999329	
87.877357	-9.189495	-828.888062	
14.018809	-19.842846	-817.840637	
16.001133	-19.958586	-814.546875	
17.082283	-19.929253	-812.660400	
18.101187	-19.894133	-811.664856	
19.139288	-19.864878	-810.486450	
20.083612	-19.874020	-809.510193	
21.087893	-19.862785	-808.447937	
21.947460	-19.891445	-807.848816	
22.950481	-19.907841	-806.885254	
23.955763	-19.832588	-805.861755	
24.689037	-19.780102	-805.633911	
25.560150	-19.793486	-804.960449	
26.325895	-19.771225	-804.752991	
26.974657	-19.732244	-804.351074	
27.849545	-19.676077	-803.608826	
28.291039	-19.630861	-803.656067	
29.136160	-19.539875	-803.264282	
29.786264	-19.520540	-802.815491	
30.357485	-19.504793	-802.594116	
31.258303	-19.439682	-801.965698	
31.769650	-19.412397	-801.898254	
32.702682	-19.348577	-801.282043	
33.210510	-19.328175	-801.321167	
33.783794	-19.231554	-801.225281	
34.515587	-19.125753	-800.838135	
34.898796	-19.097151	-800.864746	
35.687881	-19.047970	-800.268616	
36.179150	-19.009228	-800.607117	
36.681255	-18.977486	-800.659607	
37.545506	-18.894182	-800.155090	
37.930016	-18.867012	-800.037903	
38.750118	-18.787039	-799.789063	
39.280560	-18.736891	-799.643005	
39.786205	-18.671135	-799.220093	
40.594578	-18.591524	-799.281128	
40.932705	-18.554108	-799.061890	
41.693558	-18.494152	-799.193970	
42.136673	-18.452120	-799.002747	
42.652676	-18.391729	-798.790833	
43.382027	-18.333656	-799.000366	
43.686310	-18.282106	-799.042664	
44.977886	-18.131815	-798.243103	
45.542206	-18.074694	-798.255859	
46.190361	-18.000013	-798.696289	
46.496559	-17.947618	-798.113098	
47.176373	-17.893673	-798.721741	
47.619026	-17.821329	-798.187744	
48.127365	-17.750132	-798.188721	
48.765472	-17.687677	-798.725098	
49.104568	-17.628336	-798.193542	
49.719074	-17.570255	-798.478760	
50.252705	-17.472780	-798.234802	
50.790104	-17.399414	-798.006958	
51.343552	-17.373737	-798.767395	
51.804485	-17.282715	-798.126587	
52.278057	-17.219641	-798.648743	
52.762360	-17.148727	-797.988159	
53.288437	-17.063553	-798.395142	
53.728012	-17.035048	-799.031250	
54.219662	-16.939270	-798.437500	
54.693901	-16.878096	-798.823120	
55.195179	-16.768349	-798.211914	
55.770275	-16.700277	-798.657166	
56.263027	-16.646833	-799.127502	
56.648674	-16.582077	-798.639709	
57.121296	-16.515217	-799.182068	
57.551414	-16.422409	-798.970337	
58.068222	-16.360416	-799.205872	
58.551327	-16.307657	-799.598267	
58.948074	-16.225409	-799.239014	
59.557148	-16.175367	-799.373474	
60.081421	-16.079800	-799.437561	
60.554241	-15.986263	-799.563538	
61.141983	-15.933370	-799.782471	
61.446728	-15.884461	-799.685181	
61.882847	-15.812397	-800.268188	
62.335030	-15.722003	-800.276855	
62.811230	-15.635305	-800.248474	
63.266785	-15.586660	-800.561768	
63.601505	-15.508791	-800.221802	
64.109291	-15.396482	-800.729492	
64.579163	-15.327493	-800.858337	
65.050507	-15.216596	-800.946045	
65.499535	-15.148261	-801.619385	
65.799278	-15.088056	-801.477905	
66.241867	-14.977754	-801.813477	
67.134392	-14.841174	-802.289917	
67.578171	-14.743843	-802.672363	
67.892403	-14.665971	-802.532959	
68.366890	-14.599357	-802.894958	
68.831314	-14.495596	-803.324402	
69.252365	-14.395469	-803.171204	
69.626999	-14.322725	-803.801453	
70.093559	-14.232259	-803.794189	
70.567337	-14.154522	-804.343567	
70.860283	-14.063494	-804.137939	
71.224747	-13.981460	-804.589661	
71.576591	-13.916553	-804.995667	
71.952507	-13.844094	-805.462402	
72.303368	-13.716171	-805.708130	
72.746101	-13.615234	-805.851807	
73.185692	-13.498829	-806.307922	
73.586639	-13.434753	-806.828125	
73.921082	-13.353786	-806.617676	
74.304085	-13.248096	-807.203186	
74.656303	-13.188213	-807.625000	
75.040192	-13.083445	-807.600708	
75.469872	-12.990868	-808.296204	
75.759689	-12.903751	-808.202942	
76.189117	-12.798417	-808.938110	
76.571770	-12.699890	-809.044495	
76.966942	-12.607313	-809.380676	
77.381889	-12.506063	-810.169312	
77.671738	-12.420666	-810.205322	
78.062172	-12.312081	-810.759216	
78.385674	-12.229722	-811.107605	
78.739845	-12.125349	-811.399719	
79.127693	-12.010711	-811.822021	
79.364418	-11.930631	-811.802673	
79.826172	-11.823109	-812.984253	
80.171844	-11.722562	-813.186890	
80.534210	-11.615041	-813.677063	
80.902641	-11.498117	-814.133545	
81.147835	-11.420070	-814.519348	
81.524483	-11.287519	-815.124695	
81.820595	-11.192228	-815.485962	
82.099411	-11.102353	-815.825684	
82.520782	-10.988496	-817.046326	
82.722618	-10.881934	-816.947327	
83.114929	-10.773032	-817.661926	
83.409546	-10.674150	-818.184021	
83.725121	-10.550709	-818.627319	
84.086578	-10.422752	-819.509705	
84.307037	-10.321651	-819.744507	
84.647118	-10.204956	-820.871521	
84.883575	-10.088156	-821.070374	
85.146721	-9.988717	-821.793579	
85.483879	-9.868288	-822.733826	
85.679558	-9.755091	-823.081238	
86.011963	-9.598859	-823.981934	
86.323692	-9.479716	-824.613953	
86.666862	-9.372337	-824.924316	
86.998428	-9.240790	-825.629578	
87.210007	-9.107900	-826.157898	
87.427750	-8.988099	-826.988281	
15.813689	-19.419844	-813.959717	
16.852900	-19.375498	-812.949341	
17.928444	-19.343857	-811.888245	
18.956314	-19.361759	-810.655884	
19.936253	-19.361305	-809.798462	
20.959734	-19.360287	-808.689819	
21.788975	-19.370071	-808.432129	
22.654655	-19.390867	-807.378113	
23.645098	-19.345507	-806.240601	
